0.1 -68.5994 -68.5994 2 1 0
0.0988673 -68.5594 -68.5594 1 1 0
0.0980233 -68.5294 -68.5294 1 1 0
0.0967662 -68.4845 -68.4845 1 1 0
0.0949004 -68.417 -68.417 1 1 0
0.0921461 -68.3158 -68.3158 1 1 0
0.0881132 -68.1639 -68.1639 1 1 0
0.0822816 -67.9362 -67.9362 1 1 0
0.0740108 -67.5946 -67.5946 1 1 0
0.0629001 -67.0947 -67.0947 1 1 0
0.0529114 -66.5948 -66.5948 1 1 0
0.0439875 -66.0949 -66.0949 1 1 0
0.036076 -65.595 -65.595 1 1 0
0.0291287 -65.095 -65.095 1 1 0
0.0231009 -64.595 -64.595 1 1 0
0.0179518 -64.0951 -64.0951 1 1 0
0.0136431 -63.5951 -63.5951 1 1 0
0.0101395 -63.0951 -63.0951 1 1 0
0.00740828 -62.5951 -62.5951 1 1 0
0.00541866 -62.0951 -62.0951 1 1 0
0.00414202 -61.5951 -61.5951 1 1 0
0.00355145 -61.0951 -61.0951 1 1 0
0.00350158 -60.8999 -60.8999 2 1 0
0.00382322 -60.3999 -60.3999 2 1 0
0.00477279 -59.8999 -59.8999 2 1 0
0.00632812 -59.3999 -59.3999 2 1 0
0.00846808 -58.8999 -58.8999 2 1 0
0.0111725 -58.3999 -58.3999 2 1 0
0.0144219 -57.8999 -57.8999 2 1 0
0.0181977 -57.3999 -57.3999 2 1 0
0.0224817 -56.8999 -56.8999 2 1 0
0.0272561 -56.4 -56.4 2 1 0
0.0325037 -55.9 -55.9 2 1 0
0.0382073 -55.4 -55.4 2 1 0
0.04435 -54.9001 -54.9001 2 1 0
0.0509148 -54.4001 -54.4001 2 1 0
0.0578848 -53.9002 -53.9002 2 1 0
0.0652429 -53.4002 -53.4002 2 1 0
0.0729718 -52.9003 -52.9003 2 1 0
0.0810538 -52.4003 -52.4003 2 1 0
0.0894707 -51.9004 -51.9004 2 1 0
0.0982038 -51.4005 -51.4005 2 1 0
0.107234 -50.9006 -50.9006 2 1 0
0.11654 -50.4007 -50.4007 2 1 0
0.126103 -49.9007 -49.9007 2 1 0
0.135899 -49.4008 -49.4008 2 1 0
0.145906 -48.9009 -48.9009 2 1 0
0.156098 -48.4011 -48.4011 2 1 0
0.166451 -47.9012 -47.9012 2 1 0
0.176937 -47.4013 -47.4013 2 1 0
0.187526 -46.9014 -46.9014 2 1 0
0.198189 -46.4015 -46.4015 2 1 0
0.208891 -45.9016 -45.9016 2 1 0
0.219598 -45.4017 -45.4017 2 1 0
0.230272 -44.9018 -44.9018 2 1 0
0.240874 -44.402 -44.402 2 1 0
0.25136 -43.9021 -43.9021 2 1 0
0.261685 -43.4022 -43.4022 2 1 0
0.2718 -42.9023 -42.9023 2 1 0
0.281654 -42.4024 -42.4024 2 1 0
0.29119 -41.9025 -41.9025 2 1 0
0.300352 -41.4026 -41.4026 2 1 0
0.309075 -40.9027 -40.9027 2 1 0
0.317294 -40.4028 -40.4028 2 1 0
0.324939 -39.9029 -39.9029 2 1 0
0.331937 -39.4029 -39.4029 2 1 0
0.338209 -38.903 -38.903 2 1 0
0.343677 -38.4031 -38.4031 2 1 0
0.348255 -37.9031 -37.9031 2 1 0
0.351856 -37.4032 -37.4032 2 1 0
0.354391 -36.9032 -36.9032 2 1 0
0.355769 -36.4033 -36.4033 2 1 0
0.356003 -36.1023 -36.1023 2 1 0
0.355335 -35.6024 -35.6024 2 1 0
0.35327 -35.1025 -35.1025 2 1 0
0.349719 -34.6026 -34.6026 2 1 0
0.344595 -34.1028 -34.1028 2 1 0
0.337817 -33.603 -33.603 2 1 0
0.32931 -33.1032 -33.1032 2 1 0
0.319008 -32.6035 -32.6035 2 1 0
0.306856 -32.1039 -32.1039 2 1 0
0.292814 -31.6044 -31.6044 2 1 0
0.276853 -31.1049 -31.1049 2 1 0
0.258966 -30.6055 -30.6055 2 1 0
0.239163 -30.1063 -30.1063 2 1 0
0.217473 -29.6072 -29.6072 2 1 0
0.193949 -29.1081 -29.1081 2 1 0
0.168667 -28.6093 -28.6093 2 1 0
0.141725 -28.1105 -28.1105 2 1 0
0.11324 -27.6118 -27.6118 2 1 0
0.0833556 -27.1133 -27.1133 2 1 0
0.0522293 -26.6148 -26.6148 2 1 0
0.0200372 -26.1165 -26.1165 2 1 0
-0.0130321 -25.6182 -25.6182 2 1 0
-0.0467802 -25.1199 -25.1199 2 1 0
-0.0810034 -24.6217 -24.6217 2 1 0
-0.113986 -24.1453 -24.1453 2 1 0
-0.148549 -23.6471 -23.6471 1 1 0
-0.182992 -23.1489 -23.1489 1 1 0
-0.217131 -22.6506 -22.6506 1 1 0
-0.113986 -24.1453 -24.1453 4 4 0
-0.113986 -24.117 -24.1736 3 4 0
-0.113986 -24.1166 -24.174 3 4 0
-0.113974 -24.0319 -24.2589 3 4 0
-0.113931 -23.9051 -24.3866 3 4 0
-0.113808 -23.7155 -24.5786 3 4 0
-0.113495 -23.4324 -24.868 3 4 0
-0.112735 -23.0109 -25.3046 3 4 0
-0.111504 -22.5519 -25.7882 3 4 0
-0.109688 -22.0531 -26.3244 3 4 0
-0.107156 -21.5124 -26.9187 3 4 0
-0.103767 -20.9276 -27.5774 3 4 0
-0.0993772 -20.2978 -28.3069 3 4 0
-0.0942617 -19.6709 -29.0575 3 4 0
-0.0886133 -19.0609 -29.8115 3 4 0
-0.0825399 -18.4717 -30.5678 3 4 0
-0.07615 -17.9037 -31.3246 3 4 0
-0.0695495 -17.3591 -32.0806 3 4 0
-0.0628374 -16.8405 -32.8345 3 4 0
-0.0561035 -16.3477 -33.5835 3 4 0
-0.0494258 -15.8827 -34.3258 3 4 0
-0.0428693 -15.4468 -35.0596 3 4 0
-0.0364859 -15.0402 -35.7833 3 4 0
-0.0303144 -14.6637 -36.4954 3 4 0
-0.0243819 -14.3153 -37.1944 3 4 0
-0.0187052 -13.9963 -37.8794 3 4 0
-0.0132925 -13.7059 -38.5495 3 4 0
-0.00814521 -13.4425 -39.2025 3 4 0
-0.00325967 -13.2051 -39.8414 3 4 0
0.00137158 -12.9929 -40.4641 3 4 0
0.00575849 -12.8056 -41.0703 3 4 0
0.00991247 -12.6392 -41.6594 3 4 0
0.0138457 -12.4941 -42.2319 3 4 0
0.0175705 -12.3708 -42.7892 3 4 0
0.021099 -12.2645 -43.3302 3 4 0
0.0244427 -12.175 -43.8563 3 4 0
0.0276122 -12.1012 -44.3641 3 4 0
0.0306176 -12.0425 -44.8597 3 4 0
0.0334678 -11.9974 -45.3395 3 4 0
0.0361706 -11.9642 -45.8036 3 4 0
0.0387332 -11.9427 -46.2523 3 4 0
0.0411616 -11.9315 -46.6855 3 4 0
0.0434611 -11.9273 -47.107 3 4 0
0.0456361 -11.933 -47.5121 3 4 0
0.0476902 -11.9457 -47.9016 3 4 0
0.0496264 -11.9606 -48.2789 3 4 0
0.0514474 -11.9829 -48.6411 3 4 0
0.0531552 -12.0091 -48.9908 3 4 0
0.0547515 -12.0413 -49.3236 3 4 0
0.0562381 -12.0719 -49.6429 3 4 0
0.0576165 -12.104 -49.9498 3 4 0
0.0588882 -12.1371 -50.2387 3 4 0
0.0600553 -12.1699 -50.5172 3 4 0
0.0611198 -12.2022 -50.7793 3 4 0
0.0620844 -12.2359 -51.0266 3 4 0
0.062952 -12.2673 -51.259 3 4 0
0.0637264 -12.2945 -51.4786 3 4 0
0.0644116 -12.3164 -51.6811 3 4 0
0.0650124 -12.34 -51.8719 3 4 0
0.0655338 -12.3614 -52.0469 3 4 0
0.0659816 -12.3831 -52.2076 3 4 0
0.0663616 -12.3976 -52.3546 3 4 0
0.0666801 -12.4095 -52.4864 3 4 0
0.0669434 -12.4177 -52.6069 3 4 0
0.0671578 -12.427 -52.7124 3 4 0
0.0673296 -12.4351 -52.8069 3 4 0
0.0674648 -12.4414 -52.888 3 4 0
0.0675691 -12.4475 -52.9586 3 4 0
0.0676478 -12.4532 -53.0177 3 4 0
0.0677058 -12.4523 -53.0677 3 4 0
0.0677474 -12.456 -53.1083 3 4 0
0.0677764 -12.4601 -53.1408 3 4 0
0.0677959 -12.4594 -53.1667 3 4 0
0.0678085 -12.4582 -53.1863 3 4 0
0.0678163 -12.4571 -53.2009 3 4 0
0.067821 -12.458 -53.2114 3 4 0
0.0678236 -12.4608 -53.2187 3 4 0
0.0678249 -12.4649 -53.2235 3 4 0
0.0678256 -12.4574 -53.2266 3 4 0
0.0678259 -12.4562 -53.2284 3 4 0
0.0678261 -12.4556 -53.2295 3 4 0
0.0678261 -12.459 -53.23 3 4 0
0.0678261 -12.463 -53.2303 3 4 0
0.0678261 -12.4687 -53.2304 3 4 0
0.0678261 -12.4606 -53.2305 4 4 0
0.0678261 -12.4582 -53.2305 4 4 0
0.0678261 -12.4564 -53.2305 4 4 0
0.0678261 -12.4556 -53.2305 4 4 0
0.0678261 -12.4561 -53.2305 4 4 0
0.0678261 -12.4589 -53.2305 4 4 0
0.0678261 -12.4684 -53.2305 4 4 0
0.0678261 -12.466 -53.2305 4 4 0
0.0678261 -12.4616 -53.2305 4 4 0
0.0678261 -12.4648 -53.2305 4 4 0
0.0678261 -12.4601 -53.2305 4 4 0
0.0678261 -12.4566 -53.2305 4 4 0
0.0678261 -12.4602 -53.2305 4 4 0
0.0678261 -12.4726 -53.2305 4 4 0
0.0678261 -12.4649 -53.2305 4 4 0
0.0678261 -12.4676 -53.2305 4 4 0
0.0678261 -12.4593 -53.2305 4 4 0
0.0678261 -12.4556 -53.2305 4 4 0
0.0678261 -12.4564 -53.2305 4 4 0
0.067826 -12.4886 -53.2305 4 4 0
0.0678189 -12.4766 -53.231 4 4 0
0.0678261 -12.4602 -53.2305 4 4 0
0.067826 -12.4803 -53.2305 4 4 0
0.0678224 -12.4625 -53.2307 4 4 0
0.0678262 -12.4653 -53.2305 4 4 0
0.0678267 -12.5229 -53.2305 4 4 0
0.0677973 -12.5231 -53.2324 4 4 0
0.0678262 -12.4563 -53.2305 4 4 0
0.0678783 -12.5395 -53.2271 4 4 0
0.0679366 -12.6752 -53.2233 4 4 0
0.0679366 -12.277 -53.2233 4 4 0
